-0.111633 -0.102722 0.126709 -0.532775 0.241503 0.811066
-0.105408 -0.105713 0.131592 -0.552144 0.238170 0.799007
-0.098572 -0.109680 0.137085 -0.530377 0.190192 0.826152
-0.091370 -0.114502 0.142456 -0.471448 0.199924 0.858934
-0.082825 -0.121338 0.147095 -0.433848 0.183020 0.882201
-0.072205 -0.131592 0.153442 -0.437574 0.170569 0.882856
-0.061798 -0.146118 0.160278 -0.310573 0.167254 0.935719
-0.053650 -0.159668 0.162842 0.186622 0.187366 0.964399
0.103821 -0.107910 0.131226 0.613839 0.175496 0.769677
0.115906 -0.109436 0.122742 0.619581 0.244839 0.745770
0.123352 -0.106750 0.114746 0.634112 0.267930 0.725338
0.129639 -0.105530 0.109619 0.677340 0.260078 0.688164
0.134888 -0.104736 0.104614 0.684882 0.263955 0.679164
0.140747 -0.104370 0.099548 0.660731 0.314030 0.681777
0.147217 -0.104004 0.094238 0.543138 0.381054 0.748197
0.154297 -0.103699 0.088806 0.425717 0.233420 0.874231
0.161011 -0.103271 0.083557 0.462905 0.274980 0.842677
0.167236 -0.103027 0.078430 0.595387 0.165745 0.786157
0.173096 -0.102905 0.073120 0.677617 0.250042 0.691603
0.178833 -0.102905 0.067505 0.687331 0.337800 0.643014
0.184692 -0.102722 0.061340 0.710230 0.340794 0.615981
0.190674 -0.102661 0.054230 0.663445 0.381007 0.643952
0.196411 -0.103088 0.045868 0.793029 0.312152 0.523132
0.202271 -0.103699 0.036591 0.818024 0.341617 0.462746
0.207886 -0.104797 0.027802 0.861122 0.345195 0.373242
0.211914 -0.106201 0.020203 0.911137 0.307725 0.274108
0.214478 -0.107605 0.014503 0.934856 0.314954 0.163854
0.216187 -0.109314 0.009476 0.940727 0.328430 0.084657
0.216919 -0.111389 0.005459 0.930887 0.365288 0.003802
0.216919 -0.114258 0.001129 -0.930031 -0.357799 0.083801
0.216431 -0.117798 -0.005920 -0.909197 -0.381019 0.167883
0.215698 -0.120483 -0.014290 -0.887578 -0.371824 0.271940
0.214478 -0.122559 -0.022034 -0.849163 -0.384200 0.362371
0.212158 -0.124390 -0.029114 -0.811759 -0.398639 0.426772
0.208374 -0.125732 -0.037292 -0.635807 -0.481059 0.603599
0.203735 -0.126831 -0.046448 -0.685597 -0.539649 0.488605
0.197998 -0.127441 -0.056213 -0.643521 -0.643366 0.414681
0.191284 -0.128052 -0.066101 -0.647058 -0.723116 0.241700
0.183228 -0.127686 -0.076355 -0.506527 -0.790507 0.344282
0.173096 -0.126831 -0.087402 -0.554343 -0.742562 0.375907
0.161011 -0.125122 -0.098694 -0.649501 -0.522034 0.552837
0.149048 -0.123779 -0.109314 -0.690259 -0.560460 0.457632
-0.158203 -0.128540 -0.099121 0.777318 -0.518391 0.356437
-0.168823 -0.130005 -0.088196 0.621785 -0.460640 0.633399
-0.180542 -0.131226 -0.076477 0.652575 -0.368219 0.662240
-0.191040 -0.131714 -0.065002 0.615535 -0.559403 0.555143
-0.199463 -0.131592 -0.054504 0.704217 -0.589263 0.396039
-0.206177 -0.130859 -0.044403 0.727512 -0.598698 0.335093
-0.211670 -0.129761 -0.034760 0.771223 -0.508537 0.382891
-0.215942 -0.128174 -0.026184 0.633743 -0.319359 0.704543
-0.218628 -0.126465 -0.019409 0.811275 -0.432718 0.393176
-0.219727 -0.124878 -0.012718 0.879157 -0.303952 0.367009
-0.219971 -0.122803 -0.005272 0.819681 -0.414876 0.394969
-0.220825 -0.120117 0.001305 0.908756 -0.384065 0.163269
-0.221069 -0.117310 0.005814 0.918528 -0.392973 0.043333
-0.220459 -0.114746 0.008865 -0.921352 0.380876 0.077741
-0.218750 -0.113403 0.012817 -0.898273 0.408444 0.162111
-0.215942 -0.111755 0.017578 -0.855427 0.345544 0.385803
-0.212036 -0.110291 0.024628 -0.854842 0.364545 0.369258
-0.207520 -0.108948 0.033508 -0.841595 0.356994 0.405306
-0.202148 -0.108093 0.042725 -0.781480 0.322132 0.534341
-0.196167 -0.107483 0.051239 -0.779170 0.320525 0.538663
-0.190186 -0.106934 0.058624 -0.750474 0.281785 0.597817
-0.183838 -0.106689 0.065247 -0.687872 0.266170 0.675267
-0.177490 -0.106384 0.071228 -0.662727 0.235031 0.711022
-0.171265 -0.106201 0.076660 -0.601342 0.235270 0.763568
-0.164429 -0.106384 0.081787 -0.596594 0.234192 0.767613
-0.157837 -0.106445 0.086853 -0.605364 0.236402 0.760032
-0.151489 -0.106445 0.092163 -0.632149 0.247497 0.734257
-0.145752 -0.106201 0.097412 -0.603472 0.194542 0.773289
-0.140503 -0.105957 0.102234 -0.627770 0.173209 0.758883
-0.135376 -0.105713 0.106812 -0.647385 0.232216 0.725926
-0.130615 -0.105347 0.111450 -0.658619 0.157056 0.735904
-0.126099 -0.105103 0.115784 -0.595523 0.187885 0.781058
-0.121826 -0.105286 0.119751 -0.594440 0.202394 0.778253
-0.116821 -0.106506 0.124146 -0.583779 0.230201 0.778595
-0.111267 -0.108398 0.128418 -0.556637 0.222768 0.800331
-0.104858 -0.111633 0.133423 -0.575849 0.196379 0.793621
-0.097900 -0.115784 0.139038 -0.523637 0.203226 0.827347
-0.090271 -0.121216 0.144531 -0.453950 0.196120 0.869176
-0.081116 -0.129272 0.149414 -0.403437 0.194494 0.894097
-0.069885 -0.140015 0.156250 -0.376342 0.193152 0.906123
-0.059692 -0.152954 0.162476 -0.167752 0.196119 0.966125
-0.051788 -0.162964 0.161499 0.342923 0.035672 0.938686
0.103577 -0.107117 0.131836 0.613839 0.175496 0.769677
0.115356 -0.111145 0.123779 0.659163 0.250010 0.709224
0.123413 -0.110229 0.115845 0.658358 0.245284 0.711618
0.129761 -0.110046 0.110840 0.677977 0.226612 0.699281
0.135010 -0.109619 0.106140 0.651766 0.269658 0.708862
0.140625 -0.109436 0.101196 0.675535 0.326207 0.661242
0.146851 -0.109192 0.095947 0.582654 0.388286 0.713967
0.153687 -0.109070 0.090515 0.519254 0.313725 0.794954
0.160522 -0.108643 0.085266 0.455220 0.257846 0.852226
0.166870 -0.108398 0.080261 0.620772 0.225246 0.750937
0.172852 -0.108276 0.075012 0.633336 0.230601 0.738721
0.178467 -0.108337 0.069580 0.613669 0.332397 0.716186
0.184326 -0.108215 0.063599 0.649270 0.363358 0.668146
0.190186 -0.108215 0.056946 0.708727 0.305701 0.635809
0.195923 -0.108398 0.049194 0.768903 0.290245 0.569690
0.201782 -0.108948 0.040131 0.802617 0.312306 0.508203
0.207642 -0.109985 0.030975 0.865125 0.285503 0.412367
0.212402 -0.111328 0.022797 0.903634 0.293497 0.311938
0.215454 -0.112732 0.016434 0.927422 0.305964 0.215114
0.217529 -0.114197 0.011055 0.935488 0.327528 0.132615
0.218872 -0.116089 0.006527 0.937846 0.344418 0.042683
0.218994 -0.118652 0.002958 -0.929843 -0.367056 0.025733
0.218384 -0.121582 -0.003235 -0.924439 -0.355472 0.138031
0.217896 -0.124512 -0.011482 -0.894096 -0.379929 0.237164
0.217041 -0.126587 -0.019379 -0.865209 -0.377178 0.330380
0.215454 -0.128540 -0.026245 -0.833384 -0.399291 0.382150
0.212524 -0.129639 -0.033661 -0.801446 -0.404753 0.440294
0.208374 -0.130371 -0.041931 -0.688358 -0.510623 0.515196
0.203125 -0.130737 -0.050934 -0.653494 -0.661322 0.368237
0.197510 -0.131104 -0.060272 -0.645396 -0.647994 0.404434
0.190430 -0.130615 -0.070190 -0.642513 -0.684891 0.343658
0.181030 -0.129517 -0.080872 -0.537542 -0.698555 0.472302
0.169434 -0.127441 -0.091919 -0.428782 -0.831220 0.353864
0.156738 -0.125732 -0.102661 -0.666080 -0.590506 0.455675
-0.166626 -0.130737 -0.092163 0.678137 -0.461191 0.572217
-0.177490 -0.132324 -0.081360 0.606562 -0.447520 0.657121
-0.188354 -0.133667 -0.070007 0.618387 -0.454869 0.640852
-0.197510 -0.134399 -0.059235 0.556378 -0.803338 0.212348
-0.204834 -0.134521 -0.049622 0.551653 -0.733790 0.396524
-0.210693 -0.134033 -0.040222 0.527177 -0.669556 0.523240
-0.215454 -0.133301 -0.031342 0.562748 -0.684733 0.463093
-0.219238 -0.132080 -0.023651 0.632162 -0.524171 0.570627
-0.221069 -0.130737 -0.017334 0.838344 -0.489202 0.240542
-0.221802 -0.129395 -0.010643 0.769807 -0.532054 0.352583
-0.222046 -0.127319 -0.003403 0.867339 -0.416611 0.272321
-0.222778 -0.124756 0.002619 0.879967 -0.467048 0.086747
-0.222900 -0.122192 0.006474 -0.923693 0.367552 0.108153
-0.221924 -0.119995 0.009850 -0.928659 0.356581 0.102188
-0.219727 -0.118652 0.014130 -0.927493 0.330026 0.175612
-0.216187 -0.117065 0.019775 -0.848782 0.391671 0.355193
-0.212036 -0.115662 0.028168 -0.865082 0.378713 0.328954
-0.207397 -0.114441 0.037476 -0.808947 0.316051 0.495699
-0.201904 -0.113647 0.046234 -0.751474 0.332360 0.569934
-0.195679 -0.113098 0.054169 -0.749324 0.276106 0.601896
-0.189453 -0.112671 0.061218 -0.703295 0.250014 0.665484
-0.183228 -0.112244 0.067627 -0.670353 0.248044 0.699358
-0.176880 -0.111877 0.073181 -0.643591 0.229794 0.730058
-0.170532 -0.111755 0.078369 -0.594541 0.239485 0.767573
-0.163940 -0.111877 0.083435 -0.593707 0.242811 0.767173
-0.157471 -0.111938 0.088562 -0.616885 0.231481 0.752243
-0.151367 -0.111877 0.093811 -0.615549 0.209035 0.759871
-0.145630 -0.111572 0.098877 -0.577147 0.174527 0.797773
-0.140503 -0.111267 0.103638 -0.640981 0.187141 0.744393
-0.135498 -0.111023 0.108154 -0.649266 0.182136 0.738430
-0.130737 -0.110657 0.112854 -0.671188 0.222544 0.707093
-0.126099 -0.110535 0.117249 -0.582913 0.181616 0.791977
-0.121643 -0.110962 0.121338 -0.588814 0.249759 0.768712
-0.116577 -0.112183 0.125732 -0.563887 0.255413 0.785363
-0.110657 -0.114197 0.130127 -0.544867 0.211445 0.811425
-0.104004 -0.117676 0.135376 -0.514881 0.187230 0.836566
-0.096924 -0.122070 0.141235 -0.514739 0.195255 0.834817
-0.088562 -0.128662 0.146973 -0.447234 0.181644 0.875778
-0.079102 -0.137451 0.152466 -0.419102 0.219279 0.881062
-0.067932 -0.148071 0.159424 -0.340897 0.198953 0.918807
-0.058380 -0.158813 0.164551 -0.156426 0.273730 0.949001
-0.050598 -0.164673 0.159546 0.090391 0.269790 0.958667
0.043182 -0.176880 0.028229 0.196727 0.636305 0.745932
0.085327 -0.098633 0.128174 0.372704 -0.193617 0.907526
0.103577 -0.108276 0.132080 0.591587 0.223425 0.774665
0.114868 -0.113281 0.124634 0.663346 0.264186 0.700127
0.123413 -0.114075 0.116943 0.667289 0.266390 0.695530
0.129883 -0.114624 0.112061 0.676180 0.254510 0.691379
0.135010 -0.114441 0.107666 0.653555 0.259071 0.711160
0.140625 -0.114441 0.102905 0.659385 0.284320 0.695969
0.146606 -0.114319 0.097717 0.627480 0.271269 0.729850
0.153320 -0.114197 0.092285 0.615252 0.336222 0.713035
0.160034 -0.113892 0.087036 0.510071 0.208341 0.834519
0.166626 -0.113708 0.081970 0.574458 0.317457 0.754466
0.172607 -0.113586 0.076904 0.589482 0.338611 0.733385
0.178345 -0.113586 0.071655 0.609475 0.309977 0.729695
0.184082 -0.113586 0.065918 0.696449 0.245395 0.674345
0.189941 -0.113525 0.059662 0.727517 0.255567 0.636713
0.195557 -0.113708 0.052307 0.755321 0.251204 0.605299
0.201538 -0.114258 0.043610 0.801338 0.255423 0.540940
0.207520 -0.115051 0.034119 0.852603 0.269807 0.447517
0.212524 -0.116272 0.025513 0.888089 0.292761 0.354384
0.216309 -0.117676 0.018326 0.916795 0.310963 0.250576
0.218628 -0.119141 0.012787 0.927254 0.338618 0.159802
0.220581 -0.120972 0.007889 0.934915 0.345662 0.080320
0.220947 -0.123047 0.004196 0.928265 0.371864 0.006366
0.220337 -0.125488 -0.001026 -0.926912 -0.366872 0.078993
0.219604 -0.128662 -0.008812 -0.916409 -0.345956 0.201267
0.218872 -0.130859 -0.016815 -0.885248 -0.384633 0.261523
0.218018 -0.132568 -0.023834 -0.835147 -0.444487 0.323975
0.216064 -0.133179 -0.030640 -0.810846 -0.379324 0.445693
0.212402 -0.133667 -0.037964 -0.809987 -0.331779 0.483575
0.207397 -0.133545 -0.046295 -0.701672 -0.588345 0.401878
0.202271 -0.133911 -0.055206 -0.606135 -0.713548 0.351353
0.196167 -0.133301 -0.064697 -0.591868 -0.694712 0.408740
0.187622 -0.131836 -0.074707 -0.472471 -0.812324 0.341907
0.176758 -0.129517 -0.085083 -0.525434 -0.663974 0.532032
0.164062 -0.127075 -0.095520 -0.475254 -0.806905 0.350768
-0.174927 -0.132202 -0.084717 0.722308 -0.264339 0.639058
-0.185547 -0.134033 -0.074463 0.395264 -0.803394 0.445336
-0.195190 -0.135620 -0.063843 0.646236 -0.535899 0.543315
-0.203125 -0.136475 -0.053986 0.561011 -0.728566 0.393010
-0.209473 -0.136841 -0.045105 0.569125 -0.759771 0.314395
-0.214722 -0.136597 -0.036194 0.659106 -0.696391 0.283935
-0.218872 -0.136230 -0.028107 0.665001 -0.571178 0.481176
-0.221924 -0.135498 -0.021149 0.844631 -0.423679 0.327253
-0.223267 -0.134644 -0.015129 0.887260 -0.385682 0.253021
-0.223877 -0.133545 -0.008461 0.825632 -0.433237 0.361438
-0.224121 -0.131714 -0.001656 0.923346 -0.357007 0.141346
-0.224731 -0.129272 0.003721 -0.939073 0.340099 0.049753
-0.224487 -0.126953 0.007328 -0.948346 0.304966 0.087377
-0.223145 -0.125244 0.011078 -0.924714 0.333794 0.182990
-0.220337 -0.123779 0.016098 -0.904070 0.311854 0.292242
-0.216431 -0.122192 0.022949 -0.885922 0.301733 0.352276
-0.211914 -0.120972 0.032227 -0.839872 0.298659 0.453230
-0.207031 -0.119751 0.041504 -0.796867 0.290800 0.529564
-0.201416 -0.119019 0.049774 -0.748168 0.243228 0.617321
-0.195312 -0.118530 0.057129 -0.722286 0.229339 0.652462
-0.189087 -0.118042 0.063843 -0.689316 0.216408 0.691384
-0.182739 -0.117676 0.069824 -0.668628 0.209733 0.713407
-0.176392 -0.117310 0.075134 -0.633681 0.205061 0.745922
-0.170044 -0.117065 0.080200 -0.619403 0.207109 0.757262
-0.163574 -0.117188 0.085266 -0.596139 0.229119 0.769495
-0.157227 -0.117188 0.090332 -0.612378 0.200265 0.764779
-0.151245 -0.117065 0.095398 -0.596065 0.178517 0.782840
-0.145508 -0.116699 0.100342 -0.607949 0.153847 0.778928
-0.140503 -0.116516 0.105103 -0.652638 0.216298 0.726140
-0.135498 -0.116150 0.109619 -0.657094 0.237895 0.715286
-0.130737 -0.115906 0.114441 -0.703060 0.163861 0.691994
-0.126099 -0.115845 0.118713 -0.603744 0.151225 0.782703
-0.121582 -0.116516 0.123047 -0.599947 0.201875 0.774151
-0.116394 -0.117798 0.127563 -0.532861 0.192465 0.824025
-0.110107 -0.119995 0.131958 -0.537633 0.232661 0.810444
-0.103149 -0.123657 0.137573 -0.560525 0.172990 0.809868
-0.095764 -0.128784 0.143433 -0.511418 0.182651 0.839697
-0.086853 -0.136353 0.149536 -0.459343 0.202321 0.864911
-0.076904 -0.145630 0.155762 -0.380620 0.209177 0.900763
-0.066528 -0.155518 0.162354 -0.315612 0.276380 0.907746
-0.057617 -0.163696 0.166504 -0.023052 0.368683 0.929269
-0.049561 -0.165283 0.156860 0.090391 0.269790 0.958667
0.049225 -0.153076 0.037903 -0.065109 0.903212 0.424228
0.087952 -0.102234 0.131714 0.264003 -0.050149 0.963217
0.103699 -0.111206 0.132935 0.617214 0.212331 0.757603
0.114807 -0.116150 0.125488 0.604158 0.269659 0.749852
0.123596 -0.117920 0.118164 0.707215 0.270575 0.653174
0.130127 -0.119019 0.113342 0.626834 0.236212 0.742484
0.135010 -0.119263 0.109009 0.680824 0.256427 0.686093
0.140625 -0.119263 0.104431 0.609761 0.194648 0.768312
0.146484 -0.119141 0.099426 0.661838 0.242874 0.709213
0.152954 -0.119141 0.094055 0.576228 0.282443 0.766934
0.159668 -0.119019 0.088745 0.564911 0.301334 0.768163
0.166260 -0.118652 0.083801 0.459360 0.283122 0.841920
0.172485 -0.118652 0.078857 0.613001 0.299559 0.731091
0.178223 -0.118652 0.073669 0.626627 0.294445 0.721554
0.183960 -0.118652 0.068115 0.692423 0.240143 0.680354
0.189697 -0.118774 0.062073 0.715328 0.229248 0.660115
0.195435 -0.118896 0.055267 0.748714 0.238407 0.618538
0.201172 -0.119507 0.046936 0.794849 0.240764 0.556998
0.207153 -0.120361 0.037476 0.832036 0.255519 0.492369
0.212402 -0.121582 0.028687 0.872197 0.290555 0.393511
0.216919 -0.122803 0.020721 0.896894 0.310867 0.314551
0.219727 -0.124146 0.014832 0.918865 0.327929 0.219428
0.222168 -0.125732 0.009651 0.931411 0.345775 0.113637
0.223022 -0.127808 0.005550 0.931685 0.360255 0.046681
0.222656 -0.129761 0.001068 -0.928331 -0.368518 0.048947
0.221558 -0.132690 -0.005951 -0.931173 -0.333684 0.146875
0.220825 -0.134766 -0.013939 -0.927611 -0.298786 0.224200
0.220581 -0.135986 -0.021118 -0.840479 -0.466179 0.276175
0.219482 -0.136353 -0.027649 -0.800151 -0.436164 0.411728
0.216187 -0.136230 -0.033966 -0.796286 -0.329620 0.507227
0.211426 -0.135986 -0.041718 -0.810266 -0.351393 0.469033
0.206787 -0.135986 -0.050446 -0.750593 -0.475613 0.458697
0.201294 -0.135132 -0.059601 -0.595932 -0.701620 0.390633
0.193481 -0.133423 -0.068909 -0.588848 -0.716146 0.374691
0.183472 -0.130859 -0.078491 -0.374271 -0.888545 0.265347
0.171265 -0.128174 -0.088257 -0.367891 -0.899447 0.235907
-0.182495 -0.133301 -0.077209 0.618604 -0.166656 0.767825
-0.192749 -0.135498 -0.068115 0.364426 -0.859791 0.357706
-0.201172 -0.137085 -0.058502 0.673602 -0.633547 0.380629
-0.208008 -0.138306 -0.049377 0.509150 -0.793816 0.332599
-0.213501 -0.138916 -0.040863 0.534858 -0.813860 0.227065
-0.218384 -0.139160 -0.032440 0.751262 -0.521876 0.404044
-0.221924 -0.139160 -0.025208 0.822353 -0.422774 0.380787
-0.224121 -0.138794 -0.018921 0.861590 -0.452377 0.230256
-0.225098 -0.138306 -0.013069 0.881801 -0.414559 0.224872
-0.225830 -0.137451 -0.006531 0.920014 -0.317336 0.229939
-0.226196 -0.135742 -0.000267 0.926478 -0.370505 0.066061
-0.226562 -0.133667 0.004372 -0.914917 0.386795 0.115392
-0.225830 -0.131958 0.008087 -0.945363 0.305583 0.113612
-0.224121 -0.130249 0.012428 -0.923083 0.310960 0.226321
-0.220581 -0.128784 0.018494 -0.892267 0.313562 0.324866
-0.216309 -0.127441 0.026428 -0.855803 0.316419 0.409244
-0.211548 -0.126221 0.035980 -0.839123 0.245160 0.485560
-0.206665 -0.125122 0.044952 -0.783609 0.243714 0.571454
-0.200928 -0.124512 0.052795 -0.743612 0.214515 0.633265
-0.194824 -0.123901 0.059784 -0.714769 0.205583 0.668461
-0.188599 -0.123413 0.066284 -0.680565 0.189730 0.707696
-0.182373 -0.122925 0.071899 -0.656269 0.190318 0.730130
-0.176025 -0.122559 0.076965 -0.619986 0.192464 0.760641
-0.169678 -0.122437 0.081848 -0.619617 0.192258 0.760994
-0.163208 -0.122437 0.086853 -0.599202 0.190889 0.777508
-0.156860 -0.122437 0.091919 -0.613006 0.176540 0.770102
-0.151123 -0.122192 0.096863 -0.574786 0.176421 0.799060
-0.145630 -0.121826 0.101746 -0.621084 0.164875 0.766206
-0.140503 -0.121582 0.106506 -0.679646 0.205820 0.704074
-0.135620 -0.121338 0.111084 -0.669665 0.201306 0.714859
-0.130737 -0.120972 0.115906 -0.683204 0.199351 0.702489
-0.126221 -0.121094 0.120178 -0.607676 0.232080 0.759519
-0.121460 -0.121948 0.124573 -0.581325 0.202741 0.788009
-0.115967 -0.123291 0.129028 -0.543728 0.190697 0.817309
-0.109314 -0.125854 0.133789 -0.615545 0.206722 0.760507
-0.101868 -0.130005 0.139771 -0.576852 0.190485 0.794328
-0.094116 -0.135864 0.145752 -0.507857 0.181895 0.842019
-0.084900 -0.144287 0.152222 -0.420328 0.206931 0.883461
-0.074646 -0.153320 0.158813 -0.388428 0.272828 0.880164
-0.065125 -0.162354 0.164795 -0.158045 0.387235 0.908334
-0.057190 -0.167725 0.167603 -0.163977 0.623331 0.764572
0.056732 -0.134644 0.051025 0.942435 0.334281 0.008555
0.090515 -0.108887 0.136108 0.566425 0.356048 0.743232
0.104187 -0.116089 0.134277 0.500968 0.191376 0.844042
0.115051 -0.120239 0.126465 0.604557 0.296336 0.739389
0.123840 -0.122437 0.119324 0.699664 0.258759 0.665968
0.130249 -0.123657 0.114441 0.636168 0.220803 0.739280
0.135254 -0.124023 0.110229 0.670355 0.197643 0.715236
0.140747 -0.124023 0.105774 0.612461 0.282266 0.738388
0.146362 -0.123901 0.100891 0.661907 0.151731 0.734069
0.152710 -0.124023 0.095703 0.642500 0.196069 0.740777
0.159302 -0.123901 0.090515 0.601636 0.192421 0.775247
0.166016 -0.123657 0.085449 0.434610 0.271159 0.858829
0.172241 -0.123535 0.080566 0.598554 0.287435 0.747739
0.178101 -0.123657 0.075439 0.655161 0.213693 0.724637
0.183838 -0.123657 0.069946 0.691623 0.235968 0.682625
0.189575 -0.123901 0.064087 0.722470 0.221106 0.655095
0.195190 -0.124023 0.057770 0.738308 0.229832 0.634096
0.200928 -0.124634 0.049988 0.780290 0.233489 0.580198
0.206787 -0.125732 0.040924 0.818048 0.251540 0.517228
0.212158 -0.126831 0.031830 0.847843 0.285010 0.447137
0.217041 -0.128174 0.023315 0.885182 0.304666 0.351612
0.220581 -0.129517 0.016785 0.902701 0.331862 0.273859
0.223389 -0.130737 0.011299 0.924519 0.344905 0.162189
0.224731 -0.132446 0.006828 0.937365 0.346112 0.039412
0.224487 -0.133911 0.002941 -0.944555 -0.328322 0.004464
0.223389 -0.136353 -0.003197 -0.945100 -0.313883 0.090900
0.222534 -0.138184 -0.010902 -0.933857 -0.303007 0.189995
0.222656 -0.139038 -0.018372 -0.925176 -0.377326 0.040915
0.222168 -0.139038 -0.024841 -0.795394 -0.430624 0.426510
0.219482 -0.138550 -0.030243 -0.809963 -0.356192 0.465927
0.214966 -0.137817 -0.037170 -0.822379 -0.328588 0.464460
0.210449 -0.137451 -0.045715 -0.798767 -0.460715 0.386926
0.205444 -0.136353 -0.054565 -0.747287 -0.506493 0.430148
0.198486 -0.134644 -0.063293 -0.533422 -0.787654 0.308321
0.189209 -0.131836 -0.072021 -0.455055 -0.872557 0.177676
0.177734 -0.128906 -0.080688 -0.559361 -0.725196 0.401504
-0.189819 -0.134155 -0.070007 0.665367 -0.294275 0.686068
-0.199219 -0.136475 -0.062286 0.713344 -0.379934 0.588889
-0.206543 -0.138428 -0.053497 0.147937 -0.988912 0.012938
-0.212280 -0.139648 -0.044922 0.421396 -0.886163 0.192717
-0.217529 -0.140625 -0.036774 0.601618 -0.756346 0.256898
-0.221924 -0.141235 -0.029144 0.820189 -0.441784 0.363478
-0.224731 -0.141479 -0.022644 0.806156 -0.478303 0.348338
-0.226196 -0.141724 -0.016876 0.900346 -0.398001 0.175989
-0.226929 -0.141602 -0.011147 0.785213 -0.516365 0.341772
-0.227905 -0.140991 -0.004784 0.948106 -0.297178 0.113050
-0.228271 -0.139526 0.001019 0.950743 -0.307983 0.035134
-0.228271 -0.137939 0.005306 -0.942356 0.332315 0.039139
-0.226929 -0.136353 0.009216 -0.933162 0.306054 0.188517
-0.224609 -0.134766 0.014481 -0.908659 0.334729 0.249590
-0.220703 -0.133301 0.021667 -0.879969 0.345051 0.326487
-0.216187 -0.132202 0.030426 -0.844578 0.272407 0.460957
-0.211182 -0.131348 0.039673 -0.809006 0.238169 0.537387
-0.206055 -0.130615 0.048065 -0.775411 0.198438 0.599466
-0.200439 -0.129883 0.055542 -0.739963 0.188117 0.645808
-0.194336 -0.129395 0.062164 -0.707227 0.182684 0.682977
-0.188110 -0.128906 0.068359 -0.677261 0.179356 0.713547
-0.181885 -0.128296 0.073730 -0.652053 0.167253 0.739496
-0.175659 -0.128052 0.078613 -0.621910 0.155602 0.767473
-0.169312 -0.127808 0.083435 -0.619674 0.157922 0.768807
-0.162964 -0.127808 0.088379 -0.608353 0.176438 0.773807
-0.156738 -0.127686 0.093323 -0.601843 0.133707 0.787342
-0.151001 -0.127563 0.098267 -0.593023 0.128197 0.794915
-0.145630 -0.127075 0.103088 -0.657317 0.141634 0.740185
-0.140625 -0.126709 0.107910 -0.652033 0.189840 0.734039
-0.135742 -0.126465 0.112549 -0.675594 0.188052 0.712888
-0.130859 -0.126099 0.117371 -0.636066 0.214773 0.741143
-0.126221 -0.126221 0.121643 -0.643352 0.186040 0.742622
-0.121338 -0.127319 0.126221 -0.588951 0.226787 0.775696
-0.115540 -0.128906 0.130859 -0.540464 0.222960 0.811287
-0.108459 -0.131836 0.135742 -0.547731 0.179723 0.817123
-0.100708 -0.136475 0.141968 -0.525353 0.178779 0.831891
-0.092773 -0.143188 0.148193 -0.482586 0.190415 0.854899
-0.083069 -0.151733 0.155151 -0.424160 0.240362 0.873106
-0.072937 -0.160156 0.161865 -0.377568 0.330627 0.864944
-0.063904 -0.167603 0.167480 -0.197287 0.537774 0.819681
-0.057068 -0.168457 0.167480 -0.169188 0.648511 0.742165
0.063049 -0.127197 0.067078 -0.085807 0.405524 0.910048
0.079041 -0.112732 0.125244 0.698550 0.087454 0.710197
0.092041 -0.117432 0.140747 0.599486 0.083098 0.796060
0.104980 -0.122314 0.135986 0.370497 0.284005 0.884349
0.115723 -0.125244 0.127441 0.642067 0.206508 0.738312
0.124329 -0.127197 0.120483 0.691177 0.206539 0.692544
0.130493 -0.128296 0.115540 0.673499 0.197630 0.712279
0.135254 -0.128662 0.111511 0.644740 0.198933 0.738062
0.140625 -0.128662 0.107117 0.659845 0.236351 0.713262
0.146240 -0.128662 0.102417 0.622060 0.182939 0.761298
0.152344 -0.128784 0.097229 0.680615 0.201043 0.704517
0.158936 -0.128784 0.092102 0.625387 0.136873 0.768217
0.165527 -0.128662 0.087097 0.457282 0.176915 0.871547
0.171875 -0.128662 0.082153 0.566465 0.175319 0.805221
0.177612 -0.128784 0.077087 0.665125 0.218485 0.714054
0.183350 -0.128906 0.071716 0.686627 0.227171 0.690606
0.189209 -0.129150 0.066040 0.712446 0.217738 0.667091
0.194824 -0.129517 0.059814 0.732422 0.231497 0.640287
0.200439 -0.130127 0.052704 0.770931 0.223735 0.596329
0.206177 -0.131226 0.044342 0.808668 0.257664 0.528834
0.211548 -0.132080 0.035370 0.829710 0.266103 0.490683
0.216797 -0.133179 0.026642 0.852307 0.320783 0.413125
0.221069 -0.134521 0.019257 0.883216 0.340682 0.322281
0.224365 -0.135620 0.013336 0.916208 0.331806 0.224650
0.226318 -0.136963 0.008606 0.951710 0.299526 0.067319
0.226440 -0.138184 0.004475 -0.945068 -0.326802 0.006769
0.225464 -0.139893 -0.000580 0.946520 0.321887 0.022099
0.224365 -0.141357 -0.007607 -0.842929 -0.515898 0.152712
0.224609 -0.141724 -0.015114 -0.786319 -0.610685 0.093626
0.224609 -0.141235 -0.021698 -0.886980 -0.399920 0.230934
0.222412 -0.140381 -0.026611 -0.805936 -0.425771 0.411323
0.218384 -0.139404 -0.032867 -0.834581 -0.277904 0.475651
0.213867 -0.138794 -0.041016 -0.820161 -0.313019 0.478909
0.209106 -0.137451 -0.049591 -0.769794 -0.513004 0.379795
0.202637 -0.135376 -0.057831 -0.588380 -0.729346 0.349090
0.194214 -0.132568 -0.065979 -0.576394 -0.718707 0.388884
0.183472 -0.129395 -0.073853 -0.451671 -0.823337 0.343672
-0.195923 -0.135132 -0.063416 0.673173 -0.517774 0.527966
-0.204712 -0.137451 -0.056976 0.280988 -0.956879 0.073675
-0.210815 -0.139160 -0.048828 0.532537 -0.777235 0.335128
-0.215820 -0.140503 -0.040527 0.510351 -0.850647 0.126260
-0.220825 -0.141724 -0.032776 0.782223 -0.493038 0.380842
-0.225098 -0.142822 -0.025879 0.814706 -0.448341 0.367757
-0.227295 -0.143433 -0.020233 0.745311 -0.637329 0.195764
-0.227905 -0.143921 -0.014626 0.608645 -0.778599 0.152754
-0.228638 -0.144287 -0.008545 0.674263 -0.733986 0.081451
-0.229736 -0.144043 -0.002266 0.864960 -0.488100 0.116632
-0.229858 -0.142822 0.002953 0.934735 -0.350492 0.058541
-0.229370 -0.141479 0.006996 -0.910879 0.376550 0.168845
-0.227661 -0.140259 0.011421 -0.913989 0.361615 0.184007
-0.224487 -0.138916 0.017868 -0.891888 0.398745 0.213397
-0.220337 -0.137939 0.025970 -0.832519 0.390377 0.393087
-0.215698 -0.137085 0.034821 -0.800200 0.287571 0.526292
-0.210693 -0.136597 0.043304 -0.777525 0.240952 0.580859
-0.205200 -0.135864 0.051056 -0.760281 0.219628 0.611340
-0.199463 -0.135254 0.058014 -0.732495 0.197666 0.651444
-0.193359 -0.134888 0.064453 -0.696400 0.182827 0.693975
-0.187134 -0.134399 0.070312 -0.660722 0.169080 0.731340
-0.181030 -0.133911 0.075439 -0.644808 0.150740 0.749333
-0.174805 -0.133667 0.080261 -0.617039 0.159538 0.770591
-0.168579 -0.133423 0.084961 -0.626946 0.147479 0.764976
-0.162354 -0.133423 0.089905 -0.581172 0.111424 0.806117
-0.156372 -0.133301 0.094788 -0.587728 0.074448 0.805626
-0.150879 -0.132935 0.099670 -0.615374 0.103665 0.781389
-0.145630 -0.132446 0.104431 -0.664964 0.187919 0.722848
-0.140625 -0.131958 0.109314 -0.658482 0.182231 0.730201
-0.135742 -0.131592 0.114075 -0.702479 0.221934 0.676216
-0.130859 -0.131226 0.118652 -0.620281 0.147660 0.770356
-0.126099 -0.131592 0.123108 -0.635835 0.214964 0.741286
-0.120850 -0.132812 0.127930 -0.535153 0.175790 0.826262
-0.114624 -0.134766 0.132568 -0.579405 0.161136 0.798952
-0.107361 -0.138062 0.137817 -0.554199 0.169428 0.814959
-0.099304 -0.143311 0.144165 -0.546147 0.200167 0.813423
-0.090759 -0.150146 0.150879 -0.476774 0.153715 0.865482
-0.080444 -0.158325 0.158447 -0.396128 0.355829 0.846444
-0.070740 -0.166382 0.165161 -0.267480 0.492991 0.827897
-0.062927 -0.170532 0.168457 -0.199735 0.620385 0.758438
-0.056427 -0.165527 0.161621 0.206433 0.318451 0.925189
0.082520 -0.124634 0.135254 0.659018 0.352697 0.664304
0.093323 -0.127686 0.144165 0.589901 0.127945 0.797275
0.105530 -0.129761 0.137573 0.481604 0.357838 0.800006
0.116150 -0.131104 0.128784 0.659770 0.193444 0.726142
0.124329 -0.132446 0.121948 0.695173 0.183972 0.694902
0.130615 -0.133179 0.116760 0.701840 0.237909 0.671431
0.135376 -0.133545 0.112793 0.645151 0.209129 0.734877
0.140625 -0.133545 0.108398 0.688447 0.236358 0.685694
0.146118 -0.133545 0.103821 0.687048 0.219243 0.692746
0.152222 -0.133789 0.098816 0.544051 0.230720 0.806708
0.158447 -0.133911 0.093689 0.758830 0.161665 0.630905
0.165039 -0.134033 0.088745 0.344423 0.061131 0.936822
0.171265 -0.134033 0.083740 0.503305 0.137797 0.853051
0.177124 -0.134155 0.078857 0.663830 0.217561 0.715539
0.182861 -0.134277 0.073547 0.669556 0.241187 0.702513
0.188477 -0.134521 0.067993 0.702130 0.249041 0.667077
0.194214 -0.134888 0.061981 0.717373 0.254864 0.648398
0.199951 -0.135376 0.055389 0.757808 0.279359 0.589648
0.205566 -0.136230 0.047760 0.784469 0.314673 0.534406
0.210938 -0.136963 0.039307 0.809718 0.298336 0.505324
0.216309 -0.137817 0.030670 0.820601 0.365067 0.439705
0.221313 -0.138916 0.022430 0.858529 0.394983 0.326981
0.225098 -0.140137 0.016052 0.883841 0.407899 0.229005
0.227417 -0.140991 0.010895 0.915821 0.378075 0.135389
0.228027 -0.142090 0.006523 -0.930261 -0.364809 0.039106
0.227295 -0.143066 0.001980 0.891984 0.451922 0.011449
0.226196 -0.143921 -0.004211 -0.702443 -0.711705 0.007067
0.226318 -0.144043 -0.011513 -0.582895 -0.790064 0.189823
0.226440 -0.143066 -0.018311 -0.745618 -0.666101 0.019068
0.224854 -0.142090 -0.023438 -0.870727 -0.251380 0.422660
0.221313 -0.140869 -0.029053 -0.836838 -0.351479 0.419719
0.216919 -0.140015 -0.036377 -0.805981 -0.293517 0.514045
0.212036 -0.138184 -0.044586 -0.808830 -0.399871 0.431158
0.205933 -0.135986 -0.052521 -0.755326 -0.458747 0.468011
0.198120 -0.133179 -0.059906 -0.551044 -0.764049 0.335529
0.188110 -0.130493 -0.066711 -0.555493 -0.810629 0.185224
-0.200928 -0.135742 -0.056305 0.426885 -0.864935 0.263926
-0.209106 -0.138062 -0.051666 0.397942 -0.888877 0.227024
-0.214355 -0.139648 -0.044220 0.468583 -0.849649 0.241922
-0.218994 -0.140869 -0.036224 0.642347 -0.716911 0.270977
-0.223877 -0.142456 -0.028992 0.773956 -0.529524 0.347271
-0.227905 -0.143799 -0.022919 0.761118 -0.611217 0.217055
-0.229370 -0.144531 -0.017700 0.508708 -0.860842 0.012923
-0.229736 -0.145264 -0.011833 0.425029 -0.901313 0.083582
-0.230225 -0.145996 -0.005333 -0.469360 0.882796 0.019316
-0.231201 -0.146118 0.001099 -0.460096 0.887340 0.030636
-0.231201 -0.145386 0.006046 -0.766456 0.630204 0.124044
-0.230103 -0.144409 0.010193 -0.798178 0.597157 0.079466
-0.227783 -0.143677 0.015266 -0.822446 0.513575 0.244587
-0.223999 -0.142822 0.022125 -0.821291 0.475594 0.315106
-0.219727 -0.142212 0.030762 -0.772739 0.456781 0.440711
-0.215088 -0.141724 0.039307 -0.750454 0.374050 0.544891
-0.209961 -0.141235 0.047119 -0.738590 0.312939 0.597121
-0.204468 -0.140747 0.054291 -0.732652 0.270965 0.624339
-0.198608 -0.140259 0.060760 -0.710830 0.254509 0.655703
-0.192505 -0.139893 0.066833 -0.685589 0.214173 0.695771
-0.186401 -0.139526 0.072327 -0.662825 0.190049 0.724254
-0.180298 -0.139282 0.077148 -0.640057 0.178025 0.747418
-0.174072 -0.139038 0.081848 -0.606974 0.194341 0.770593
-0.167969 -0.138916 0.086548 -0.614668 0.178474 0.768330
-0.161865 -0.138916 0.091431 -0.565510 0.068602 0.821884
-0.156006 -0.138672 0.096313 -0.597760 0.069646 0.798644
-0.150635 -0.138062 0.101074 -0.633396 0.110492 0.765899
-0.145386 -0.137451 0.105835 -0.694748 0.165483 0.699957
-0.140381 -0.136963 0.110779 -0.688891 0.151589 0.708837
-0.135498 -0.136597 0.115662 -0.692985 0.167812 0.701150
-0.130615 -0.136230 0.120300 -0.662520 0.099674 0.742383
-0.125610 -0.136719 0.125000 -0.608092 0.190216 0.770741
-0.120178 -0.138184 0.129883 -0.588512 0.170382 0.790331
-0.113770 -0.140503 0.134766 -0.526704 0.157241 0.835379
-0.106445 -0.144165 0.139893 -0.575928 0.189329 0.795274
-0.097961 -0.149536 0.146606 -0.509518 0.207991 0.834944
-0.088684 -0.156372 0.153931 -0.495162 0.280723 0.822198
-0.077759 -0.164551 0.162476 -0.298723 0.484917 0.821961
-0.069031 -0.170044 0.167725 -0.207560 0.626221 0.751509
-0.061676 -0.167847 0.164307 -0.079475 0.460685 0.883999
0.084717 -0.136475 0.142700 0.243741 0.308436 0.919488
0.094360 -0.137573 0.146851 0.417681 0.198569 0.886630
0.106079 -0.137329 0.139404 0.535799 0.234441 0.811146
0.116333 -0.137329 0.130615 0.636484 0.174371 0.751321
0.124329 -0.137939 0.123596 0.704160 0.190773 0.683933
0.130737 -0.138184 0.118164 0.691926 0.211165 0.690396
0.135498 -0.138428 0.114075 0.671633 0.240843 0.700645
0.140747 -0.138428 0.109741 0.630122 0.215075 0.746116
0.146240 -0.138672 0.105164 0.709904 0.265783 0.652224
0.152100 -0.139038 0.100281 0.612917 0.116705 0.781481
0.158203 -0.139282 0.095337 0.849211 0.059999 0.524634
0.164429 -0.139282 0.090454 0.259446 0.336237 0.905336
0.170654 -0.139282 0.085510 0.225205 0.193706 0.954862
0.176514 -0.139404 0.080688 0.644454 0.239780 0.726075
0.182251 -0.139404 0.075623 0.652697 0.307365 0.692469
0.187988 -0.139648 0.070251 0.672767 0.325270 0.664518
0.193604 -0.139893 0.064392 0.689524 0.319695 0.649886
0.199219 -0.140259 0.058167 0.723035 0.374556 0.580456
0.204956 -0.140869 0.051147 0.763123 0.374529 0.526661
0.210327 -0.141479 0.043213 0.763584 0.368524 0.530216
0.215698 -0.142090 0.034637 0.748784 0.450410 0.486265
0.220825 -0.142822 0.026337 0.783130 0.487801 0.385690
0.225220 -0.143677 0.019470 0.781163 0.594191 0.191628
0.227905 -0.144409 0.014183 0.844329 0.516193 0.143710
0.229248 -0.145142 0.009644 0.853665 0.509811 0.106533
0.229004 -0.145630 0.005295 0.757386 0.643739 0.109393
0.227905 -0.145752 -0.000401 0.683273 0.721615 0.111401
0.227905 -0.145508 -0.007301 0.640864 0.765459 0.058017
0.227905 -0.144409 -0.014168 -0.624657 -0.769408 0.133472
0.226807 -0.143188 -0.019806 -0.774838 -0.561452 0.290513
0.223999 -0.141846 -0.025269 -0.839544 -0.289813 0.459538
0.219727 -0.140625 -0.031769 -0.831641 -0.263255 0.488948
0.214478 -0.138550 -0.039551 -0.793042 -0.296180 0.532318
0.208496 -0.136475 -0.047150 -0.772951 -0.476868 0.418501
0.201050 -0.133911 -0.053680 -0.648241 -0.636617 0.417735
-0.211548 -0.138672 -0.045258 0.496694 -0.837381 0.228228
-0.216675 -0.140137 -0.038879 0.484815 -0.869298 0.096310
-0.221313 -0.141235 -0.031464 0.777227 -0.496306 0.386780
-0.226074 -0.142944 -0.024811 0.796105 -0.481493 0.366580
-0.229736 -0.144287 -0.019348 0.603436 -0.784748 0.141550
-0.230835 -0.145142 -0.014046 0.433554 -0.887299 0.157261
-0.230957 -0.146240 -0.007790 0.472067 -0.873889 0.116067
-0.231567 -0.147339 -0.000824 -0.361928 0.928189 0.086450
-0.232422 -0.147827 0.005569 -0.519832 0.852444 0.055805
-0.231934 -0.147461 0.010544 -0.526451 0.841441 0.121761
-0.230347 -0.147095 0.014977 -0.658009 0.747077 0.094342
-0.227295 -0.146606 0.020538 -0.741614 0.614248 0.269644
-0.223267 -0.146240 0.027496 -0.717101 0.584821 0.379145
-0.218872 -0.145996 0.035645 -0.723973 0.484752 0.490795
-0.214111 -0.145752 0.043396 -0.710644 0.377361 0.593788
-0.209106 -0.145386 0.050690 -0.725124 0.360248 0.586869
-0.203613 -0.144897 0.057404 -0.712754 0.327392 0.620320
-0.197754 -0.144531 0.063660 -0.670891 0.299660 0.678313
-0.191772 -0.144287 0.069336 -0.647706 0.259787 0.716232
-0.185669 -0.144043 0.074402 -0.646466 0.227163 0.728340
-0.179565 -0.143921 0.078979 -0.626455 0.229408 0.744934
-0.173462 -0.143921 0.083618 -0.605745 0.198346 0.770540
-0.167358 -0.143921 0.088135 -0.531930 0.121457 0.838032
-0.161377 -0.143921 0.092957 -0.566902 0.064859 0.821228
-0.155640 -0.143677 0.097839 -0.590085 0.103658 0.800659
-0.150269 -0.143188 0.102539 -0.644819 0.142424 0.750949
-0.145142 -0.142578 0.107239 -0.635299 0.183572 0.750131
-0.139893 -0.142090 0.112305 -0.676974 0.143863 0.721810
-0.135010 -0.141724 0.117249 -0.640313 0.129863 0.757057
-0.130127 -0.141479 0.121826 -0.670423 0.178854 0.720100
-0.124878 -0.142334 0.126831 -0.591399 0.158252 0.790698
-0.119202 -0.143921 0.131714 -0.586668 0.202978 0.783978
-0.112671 -0.146484 0.136719 -0.549488 0.218337 0.806469
-0.105225 -0.150269 0.142090 -0.554471 0.192215 0.809701
-0.095825 -0.155640 0.149292 -0.441115 0.279599 0.852785
-0.085449 -0.162598 0.158081 -0.389120 0.450080 0.803750
-0.075684 -0.168823 0.165039 -0.258533 0.635688 0.727366
-0.067017 -0.168457 0.164551 -0.239880 0.538878 0.807507
0.085754 -0.147461 0.147461 0.291862 0.460933 0.838068
0.094788 -0.146851 0.148682 0.387485 0.277466 0.879129
0.105957 -0.144897 0.141235 0.606689 0.161354 0.778392
0.116028 -0.143799 0.132568 0.634035 0.160021 0.756567
0.124023 -0.143433 0.125366 0.675533 0.199051 0.709954
0.130615 -0.143188 0.119507 0.657659 0.195468 0.727514
0.135376 -0.143311 0.115356 0.647335 0.245147 0.721706
0.140747 -0.143311 0.111084 0.630905 0.268026 0.728094
0.146240 -0.143433 0.106567 0.782577 0.176092 0.597130
0.151978 -0.143921 0.101807 0.650167 0.173027 0.739827
0.157837 -0.144043 0.097107 0.544429 0.132262 0.828314
0.163940 -0.144043 0.092346 0.232857 0.476449 0.847805
0.170044 -0.144043 0.087585 0.096764 0.481186 0.871262
0.175903 -0.144043 0.082825 0.589211 0.334666 0.735411
0.181641 -0.144043 0.078003 0.636320 0.314411 0.704445
0.187256 -0.144165 0.072876 0.645799 0.360096 0.673257
0.192993 -0.144287 0.067261 0.641595 0.456617 0.616325
0.198730 -0.144531 0.061279 0.690525 0.502211 0.520538
0.204346 -0.144897 0.054565 0.701368 0.483179 0.524043
0.209717 -0.145386 0.047058 0.721938 0.457483 0.519148
0.214844 -0.145752 0.038879 0.666392 0.590606 0.455089
0.219849 -0.146118 0.031006 0.661353 0.617386 0.425965
0.224609 -0.146484 0.023956 0.676028 0.681359 0.280598
0.227905 -0.146973 0.018555 0.738568 0.652151 0.170929
0.229858 -0.147339 0.013992 0.702588 0.705409 0.093639
0.229980 -0.147583 0.009712 0.817066 0.568701 0.094776
0.229004 -0.147217 0.004200 0.711250 0.698221 0.081313
0.228760 -0.146729 -0.002296 0.602198 0.789762 0.116767
0.228760 -0.145386 -0.009270 -0.650160 -0.759297 0.027578
0.227905 -0.143921 -0.015388 -0.655928 -0.737160 0.162336
0.225830 -0.142456 -0.021027 -0.842651 -0.485342 0.233199
0.221924 -0.140869 -0.026703 -0.840341 -0.327052 0.432278
0.216309 -0.138428 -0.033875 -0.794918 -0.328796 0.509900
0.210083 -0.136230 -0.040619 -0.797216 -0.353861 0.489110
0.202515 -0.133911 -0.045807 -0.607383 -0.784704 0.123796
-0.217773 -0.140137 -0.032471 0.751262 -0.521876 0.404044
-0.222900 -0.141357 -0.026306 0.797363 -0.480115 0.365653
-0.227539 -0.143188 -0.020233 0.745311 -0.637329 0.195764
-0.230835 -0.144653 -0.015358 0.485602 -0.858359 0.165562
-0.231567 -0.145874 -0.009834 0.488180 -0.870249 0.065935
-0.231812 -0.147339 -0.003059 -0.360211 0.932866 0.002869
-0.232544 -0.148560 0.004177 -0.469230 0.872011 0.139357
-0.233154 -0.149170 0.010574 -0.390443 0.914740 0.103944
-0.232422 -0.149414 0.015610 -0.656874 0.736099 0.163323
-0.230347 -0.149170 0.020386 -0.700472 0.680936 0.213695
-0.226685 -0.149048 0.026245 -0.729776 0.591468 0.342917
-0.222412 -0.148804 0.033051 -0.642396 0.559847 0.523353
-0.217896 -0.148804 0.040436 -0.679490 0.474120 0.559914
-0.213379 -0.148926 0.047333 -0.631284 0.503294 0.590064
-0.208374 -0.148804 0.053986 -0.669916 0.471633 0.573389
-0.203003 -0.148438 0.060211 -0.634052 0.453437 0.626396
-0.197266 -0.148315 0.065979 -0.599797 0.453918 0.658940
-0.191284 -0.148071 0.071289 -0.627682 0.338165 0.701184
-0.185059 -0.148071 0.076233 -0.616589 0.289616 0.732079
-0.178955 -0.148071 0.080811 -0.612900 0.283186 0.737672
-0.172729 -0.148193 0.085327 -0.594940 0.259715 0.760654
-0.166748 -0.148315 0.089844 -0.416080 0.120435 0.901317
-0.160889 -0.148315 0.094543 -0.619237 0.170015 0.766577
-0.155273 -0.148071 0.099243 -0.734744 0.189496 0.651339
-0.150024 -0.147827 0.103943 -0.661082 0.227199 0.715088
-0.144775 -0.147339 0.108704 -0.630189 0.207063 0.748322
-0.139404 -0.147095 0.113831 -0.695860 0.174783 0.696584
-0.134521 -0.146851 0.118774 -0.667002 0.162259 0.727173
-0.129395 -0.146973 0.123596 -0.674716 0.211616 0.707091
-0.124023 -0.147949 0.128906 -0.622109 0.211420 0.753845
-0.118469 -0.149414 0.133667 -0.515137 0.178236 0.838371
-0.111816 -0.151978 0.138672 -0.561728 0.245102 0.790181
-0.103760 -0.155884 0.144653 -0.492568 0.264703 0.829041
-0.093262 -0.161377 0.152710 -0.461587 0.493950 0.736852
-0.083618 -0.167236 0.160889 -0.288406 0.662690 0.691132
-0.073914 -0.168579 0.163086 -0.295347 0.563992 0.771157
0.002407 -0.188965 0.037903 0.078784 0.853987 0.514294
0.078186 -0.151978 0.126465 -0.850704 -0.000663 0.525644
0.086609 -0.155762 0.150146 0.499641 0.096858 0.860800
0.095703 -0.154419 0.150024 0.479037 0.199363 0.854856
0.106140 -0.151489 0.142822 0.607680 0.219852 0.763145
0.115784 -0.149780 0.134399 0.598333 0.159533 0.785205
0.123474 -0.148926 0.127075 0.663563 0.199391 0.721060
0.130127 -0.148315 0.120972 0.686877 0.232721 0.688507
0.135254 -0.148071 0.116577 0.567858 0.208492 0.796285
0.140503 -0.148071 0.112305 0.711981 0.245863 0.657749
0.145996 -0.147949 0.107910 0.678887 0.161359 0.716293
0.151733 -0.148193 0.103271 0.574625 0.240715 0.782216
0.157593 -0.148315 0.098572 0.613862 0.192685 0.765537
0.163574 -0.148438 0.093933 0.343567 0.434397 0.832623
0.169556 -0.148315 0.089294 0.281234 0.451283 0.846907
0.175415 -0.148071 0.084778 0.609457 0.242778 0.754732
0.181152 -0.148071 0.080200 0.591029 0.339796 0.731590
0.186768 -0.148193 0.075378 0.617702 0.408509 0.671986
0.192627 -0.148315 0.070007 0.600597 0.525540 0.602571
0.198242 -0.148438 0.064148 0.597750 0.517718 0.612096
0.203613 -0.148560 0.058014 0.676425 0.518335 0.523238
0.208740 -0.148560 0.051147 0.706599 0.518442 0.481597
0.213379 -0.148560 0.043579 0.634063 0.552553 0.540971
0.218262 -0.148560 0.036133 0.565211 0.710303 0.419530
0.223145 -0.148560 0.029144 0.653268 0.692101 0.306982
0.227173 -0.148926 0.023468 0.657046 0.716232 0.235165
0.229858 -0.149170 0.018875 0.735820 0.663228 0.136742
0.230469 -0.149292 0.014862 0.777458 0.620958 0.099848
0.229736 -0.148560 0.009552 0.772617 0.630643 0.073163
0.229126 -0.147949 0.003220 0.699847 0.702967 0.126694
0.228882 -0.146240 -0.003632 0.598796 0.799243 0.051516
0.228271 -0.144409 -0.010262 -0.647490 -0.753955 0.110949
0.226685 -0.142944 -0.016296 -0.698816 -0.684586 0.207362
0.223267 -0.140869 -0.021515 -0.868971 -0.378952 0.318254
0.217407 -0.137817 -0.027893 -0.810796 -0.377375 0.447434
-0.227051 -0.143433 -0.015312 0.615365 -0.739599 0.272614
-0.230103 -0.145020 -0.010872 0.579433 -0.812372 0.065641
-0.230835 -0.146484 -0.004501 0.496437 -0.868071 0.001789
-0.231812 -0.148193 0.002560 -0.354654 0.925920 0.129976
-0.232788 -0.149414 0.009476 -0.376675 0.917104 0.130526
-0.233154 -0.150024 0.015518 -0.656874 0.736099 0.163323
-0.232056 -0.150757 0.020508 -0.671646 0.713378 0.199959
-0.229736 -0.150879 0.025574 -0.700233 0.625064 0.344918
-0.225952 -0.151123 0.031311 -0.687538 0.569391 0.450649
-0.221558 -0.151367 0.037964 -0.688199 0.498943 0.526724
-0.216919 -0.151489 0.044647 -0.564785 0.623041 0.541145
-0.212158 -0.151611 0.050995 -0.632928 0.592897 0.497871
-0.207153 -0.151733 0.057526 -0.619629 0.587685 0.520275
-0.202026 -0.151733 0.063354 -0.571389 0.614406 0.544078
-0.196533 -0.151611 0.068604 -0.500194 0.597939 0.626319
-0.190674 -0.151611 0.073364 -0.546321 0.477570 0.688085
-0.184692 -0.151733 0.077881 -0.581382 0.391834 0.713064
-0.178589 -0.151855 0.082397 -0.588448 0.334480 0.736106
-0.172363 -0.151978 0.086792 -0.522817 0.287230 0.802597
-0.166504 -0.152222 0.091248 -0.340914 0.349788 0.872597
-0.160645 -0.152222 0.096008 -0.711799 0.265213 0.650387
-0.154907 -0.152100 0.100769 -0.498820 0.285233 0.818425
-0.149536 -0.151978 0.105530 -0.802281 0.183802 0.567945
-0.144287 -0.151855 0.110352 -0.633723 0.220637 0.741427
-0.138916 -0.151611 0.115601 -0.636019 0.186447 0.748811
-0.133789 -0.151611 0.120667 -0.752575 0.261855 0.604205
-0.128662 -0.151855 0.125488 -0.645099 0.193827 0.739106
-0.123291 -0.152710 0.130737 -0.554151 0.283666 0.782592
-0.117493 -0.154419 0.135498 -0.593527 0.256901 0.762710
-0.109680 -0.157471 0.141479 -0.563482 0.402149 0.721640
-0.100525 -0.161133 0.148682 -0.425396 0.444989 0.788051
-0.090820 -0.166138 0.156738 -0.371802 0.547116 0.749952
-0.082153 -0.169556 0.162231 -0.274511 0.670032 0.689711
-0.070740 -0.165405 0.151367 -0.478769 0.261215 0.838181
0.003567 -0.175293 0.037140 -0.171250 -0.219138 0.960548
0.078613 -0.157349 0.130859 -0.807241 -0.208659 0.552107
0.086792 -0.162109 0.151245 0.539466 -0.190496 0.820176
0.095581 -0.160522 0.150757 0.289932 0.210416 0.933630
0.105957 -0.156982 0.143799 0.586495 0.360103 0.725500
0.115601 -0.155151 0.135620 0.543128 0.282112 0.790838
0.123230 -0.153809 0.128296 0.652703 0.298351 0.696395
0.129639 -0.153076 0.122437 0.621652 0.258279 0.739487
0.135010 -0.152466 0.117798 0.682513 0.257470 0.684021
0.140137 -0.152222 0.113647 0.637184 0.213324 0.740601
0.145752 -0.152100 0.109192 0.684671 0.280441 0.672739
0.151611 -0.152100 0.104553 0.636313 0.369259 0.677314
0.157349 -0.152100 0.099915 0.695048 0.379784 0.610469
0.163208 -0.152222 0.095398 0.360064 0.388869 0.848018
0.169067 -0.151978 0.090881 0.319756 0.220374 0.921516
0.174805 -0.151855 0.086548 0.569586 0.217761 0.792560
0.180664 -0.151611 0.082153 0.552791 0.325136 0.767273
0.186279 -0.151611 0.077759 0.525510 0.429216 0.734583
0.192017 -0.151611 0.072937 0.532634 0.499450 0.683265
0.197388 -0.151489 0.067688 0.640113 0.560727 0.525206
0.202393 -0.151245 0.062012 0.667517 0.552890 0.498732
0.207397 -0.151123 0.055542 0.695516 0.494848 0.520944
0.212036 -0.151001 0.048462 0.643815 0.604806 0.468734
0.216797 -0.150635 0.041199 0.556560 0.660820 0.503545
0.221924 -0.150513 0.034210 0.525783 0.725961 0.443321
0.226562 -0.150513 0.028168 0.532595 0.793186 0.295294
0.229614 -0.150635 0.023376 0.616770 0.763137 0.192916
0.230713 -0.150513 0.019684 0.665668 0.731243 0.148895
0.230225 -0.149902 0.015381 0.743752 0.665315 0.064729
0.229248 -0.149048 0.009293 0.772617 0.630643 0.073163
0.228760 -0.147217 0.002632 0.722300 0.688806 0.061878
0.227783 -0.144897 -0.004089 0.724374 0.688932 0.025592
0.226318 -0.142944 -0.010750 -0.711392 -0.693329 0.114965
0.223145 -0.140625 -0.015808 -0.939892 -0.341471 0.000338
-0.225586 -0.143677 -0.010017 0.669165 -0.587859 0.454576
-0.228760 -0.145630 -0.006432 -0.550248 0.833144 0.055661
-0.230103 -0.147339 0.000301 -0.314421 0.944568 0.094507
-0.231934 -0.149170 0.007545 -0.404333 0.902270 0.149747
-0.233032 -0.150024 0.014091 -0.649104 0.748609 0.135087
-0.233032 -0.150635 0.019730 -0.613162 0.771232 0.170979
-0.231567 -0.151489 0.024567 -0.820666 0.441247 0.363054
-0.229004 -0.152222 0.029266 -0.811107 0.319070 0.490204
-0.225220 -0.152710 0.034943 -0.707120 0.402996 0.581013
-0.220581 -0.152954 0.041656 -0.701718 0.414387 0.579548
-0.215942 -0.153320 0.048309 -0.541761 0.653871 0.528155
-0.211182 -0.153809 0.054657 -0.631922 0.573677 0.521123
-0.206421 -0.154297 0.061005 -0.568915 0.646514 0.508287
-0.201416 -0.154419 0.066589 -0.504345 0.678776 0.533759
-0.195801 -0.154419 0.071289 -0.431377 0.637717 0.638146
-0.189819 -0.154541 0.075684 -0.470601 0.515494 0.716101
-0.183960 -0.154663 0.080017 -0.541753 0.416732 0.729957
-0.177979 -0.154663 0.084229 -0.558960 0.359829 0.747052
-0.172119 -0.154907 0.088440 -0.534081 0.306243 0.788018
-0.166260 -0.155029 0.092834 -0.324870 0.521747 0.788822
-0.160400 -0.155273 0.097534 -0.585593 0.633382 0.505874
-0.154785 -0.155273 0.102295 -0.436812 0.428089 0.791161
-0.149292 -0.155273 0.107117 -0.843506 0.381084 0.378514
-0.144043 -0.155396 0.112061 -0.419288 0.274655 0.865311
-0.138550 -0.155396 0.117310 -0.663983 0.304148 0.683097
-0.133545 -0.155640 0.122131 -0.675497 0.193962 0.711395
-0.128174 -0.156128 0.127197 -0.660355 0.151375 0.735539
-0.122620 -0.157104 0.132324 -0.592514 0.163677 0.788757
-0.116089 -0.158813 0.137817 -0.456885 0.384572 0.802097
-0.107605 -0.161377 0.144409 -0.507293 0.469655 0.722549
-0.098511 -0.165405 0.152100 -0.361407 0.603369 0.710866
-0.088928 -0.169067 0.158691 -0.291253 0.699533 0.652552
-0.078125 -0.166138 0.157837 -0.412956 0.439874 0.797482
0.004215 -0.165039 0.037018 0.053399 -0.170740 0.983868
0.078918 -0.159790 0.130859 -0.814252 -0.196961 0.546077
0.086914 -0.165771 0.151001 0.333806 0.937061 0.102426
0.094727 -0.164062 0.151245 0.121270 0.672206 0.730364
0.104797 -0.160889 0.144775 0.462372 0.397736 0.792476
0.114502 -0.159058 0.136841 0.618366 0.310217 0.722073
0.122314 -0.157715 0.129761 0.621518 0.371658 0.689628
0.129028 -0.156860 0.123840 0.667741 0.336207 0.664144
0.134521 -0.156250 0.119080 0.687404 0.304590 0.659318
0.139526 -0.155884 0.115051 0.645934 0.205295 0.735271
0.145142 -0.155518 0.110657 0.618903 0.372997 0.691255
0.151001 -0.155273 0.106018 0.570862 0.412582 0.709854
0.156860 -0.155273 0.101440 0.587126 0.423591 0.689821
0.162476 -0.155151 0.097046 0.443898 0.449690 0.775070
0.168335 -0.154907 0.092590 0.475043 0.295420 0.828891
0.173828 -0.154541 0.088440 0.593338 0.143189 0.792115
0.179443 -0.154297 0.084290 0.532453 0.239607 0.811838
0.185181 -0.154175 0.080139 0.559987 0.320097 0.764167
0.190918 -0.154053 0.075684 0.499263 0.464667 0.731315
0.196167 -0.153931 0.070862 0.539617 0.539036 0.646725
0.201416 -0.153687 0.065430 0.668533 0.508614 0.542564
0.206299 -0.153442 0.059448 0.679049 0.510266 0.527751
0.210815 -0.153198 0.052704 0.706587 0.526374 0.472932
